# .PCD v0.7 - Point Cloud Data file format
VERSION 0.7
FIELDS x y z
SIZE 4 4 4
TYPE F F F
COUNT 1 1 1
WIDTH 1522
HEIGHT 1
VIEWPOINT 0 0 0 1 0 0 0
POINTS 1522
DATA ascii
0.20822901 -1.707 0.19359189
0.033565249 -0.014551 -2.702194
0.1173411 1.512125 -1.705338
0.74367732 0.61336231 -1.705338
-3.647624 -0.020927349 -0.030842209
3.3377299 0.020923911 0.043246821
1.6346461 0.77941698 -1.185766
-2.989383 0.020924 -0.74798173
1.672454 0.1240238 -1.695787
0.99626201 1.400831 0.92892319
1.221159 -0.033583071 -1.705338
-5.8772502 -0.02092744 0.45133221
0.35305509 0.46956351 1.802894
0.1805903 1.707 0.66862381
-0.97285849 -0.0301803 -1.888845
-3.704215 -0.02092501 -1.009809
-0.9719708 -0.45707789 -1.705338
-1.537105 0.87695849 -1.351541
5.0169802 -0.020927301 -1.409106
0.95964187 -1.45442 -0.77896672
1.707 -0.55137908 -0.79128122
-4.6089458 0.020922 -0.43175191
4.7157698 -0.02092666 1.435184
-5.584301 0.02092066 0.2828401
6.00388 -0.020927999 1.014473
0.74061328 -1.662287 1.6739219
-1.583159 -0.83090347 -1.380829
-5.5145159 -0.02092631 -1.470991
5.6121659 0.020920331 -0.5347392
0.37068841 1.433988 -2.1704969
1.706714 -0.1253861 1.67518
-1.707 0.29272711 -1.522525
-4.3550739 0.020922 -0.65942842
-5.6199489 -0.0209271 -0.3879931
3.6057489 -0.02092858 0.039862011
-1.707 -0.51871967 1.3081
-0.41222689 0.93065041 -1.922722
0.92705423 -1.487008 -1.1266659
1.573153 -0.84091032 -1.185039
0.82183552 -1.592227 0.47419289
-5.3941741 -0.020927019 0.64790893
-1.721615 -0.47981521 0.457629
-5.3946939 0.02092137 1.661433
0.78301299 -1.631049 -0.46019471
-1.54333 -0.87073159 -0.096871547
-3.6259179 -0.020925021 1.477344
-1.707 0.25252849 0.8571701
-0.2795555 0.2726019 3.3659649
-5.061615 0.02092251 1.176008
-5.349586 0.02092085 -1.4471591
0.157984 -1.5480371 0.69803292
2.7647979 0.020923341 -0.3399559
3.0305359 -0.01399588 1.998607
-5.0704279 0.020921441 1.8198431
-0.00678366 0.035647038 -2.501668
6.159256 0.02091904 -1.4358751
0.1052896 -1.697369 1.022374
-0.79706341 -0.58189303 -1.705338
3.163291 0.02092397 0.74790269
-1.390681 -1.0233819 -1.190745
0.078466073 1.707 0.072528601
-0.76341021 -1.650653 0.1053085
0.85612828 -0.083049908 -1.717544
-3.0376229 -0.0209253 0.036525492
5.3874798 -0.020927239 0.52950031
0.23879559 1.169394 -1.705338
-4.1118011 -0.02092438 0.63363832
1.707 -0.2312438 -1.149841
-1.411317 0.095961332 -1.705338
3.6167691 0.020923881 0.46151519
6.0482869 -0.02092785 1.75296
-0.2157903 -1.707 0.066408932
-5.5145459 0.020921851 1.295821
2.829386 0.02092398 1.863179
1.045841 -0.60385692 -2.010782
-0.59528488 1.010911 1.745273
1.686341 -0.72063613 0.045896862
-3.5495861 -0.02092476 -1.061425
0.69688261 -1.774866 -1.694268
-1.707 0.2758382 1.5477099
-5.2572141 0.02092129 0.38808301
-1.464094 0.94996911 -0.91400683
0.82752311 -0.04987587 -1.724888
-1.707 -0.24622209 1.109742
0.55772668 -1.434543 1.277771
1.694129 0.70183378 1.321761
-0.038735021 1.607746 2.2212901
0.62883312 -0.3861998 -1.820302
1.071347 -1.342715 -1.5971971
5.5941448 0.020919651 0.60344988
-0.2214023 -1.30414 0.93010658
3.272567 0.02092319 -1.1906869
1.2040451 0.1326703 -1.705338
-0.5771873 1.707 0.4476769
-1.707 -0.4508203 1.050863
-1.707 0.55847383 -0.1057446
3.282979 0.020923911 0.16928411
1.26846 -0.2282892 1.731472
4.383616 0.020920999 1.0419329
-1.647357 -0.76670527 1.523138
1.6873749 0.71813953 0.54842901
-0.59081757 -1.707 0.2224692
0.95498133 -1.4590811 -0.73706228
-0.48655131 -1.707 1.3999569
0.39861959 -1.673862 1.682494
-3.14253 -0.02092611 0.92563719
-3.2971139 -0.020927381 0.1459429
1.7367851 -0.292032 1.0085731
-4.7123318 0.020922219 1.571593
3.1185889 -0.02092695 -0.469338
-0.44875419 -1.124975 -1.705338
-1.245187 1.168877 0.0021444859
-0.33445609 -1.707 0.18890309
-4.7972178 0.020922771 1.177031
-4.3758259 0.020922 0.62660551
-4.546906 -0.020925781 -0.55679119
4.4829841 -0.020926559 -0.3103793
-1.707 -0.58865428 -1.097888
1.683194 0.72823429 0.3505767
-5.1532879 0.020923041 0.36927849
4.804379 0.02092093 1.365822
-3.1600969 -0.02092592 1.022653
1.656366 -0.75769728 -1.281533
4.5709128 0.020920999 0.9470278
-0.67678928 -1.7045031 -0.77419162
1.04763 -1.366432 0.75537878
-0.060700178 1.707 0.48735449
1.3778419 -1.036221 -1.03743
0.13677619 0.62188762 -1.789355
-6.0036421 -0.020927619 0.91356093
3.078259 0.02092365 -0.1466683
-5.2431459 -0.020926069 -1.353581
-0.72886008 0.94554102 1.740257
1.303357 0.1375106 1.727842
3.899709 -0.02092674 -0.065537542
3.122884 -0.02092699 0.90817207
-5.8109231 -0.020927271 -0.043303162
3.791151 -0.02092687 -0.7123121
4.6480718 -0.020927651 -0.1977379
-1.013101 1.136054 -1.705338
5.955801 -0.02092877 -1.379465
-0.28738609 1.406231 1.86535
-2.063864 -0.020923 0.22454339
3.1624889 -0.020925069 1.7103651
5.09621 0.020922421 -0.47763559
-0.16589241 1.707 -0.92446083
1.106681 -1.307382 -0.61504602
-4.0295892 0.020923231 -0.02639729
-1.403724 0.31521431 1.717405
-2.835562 0.020924 -1.277391
-3.986418 -0.033878431 -1.267899
1.707 -0.30472389 0.3964121
-0.31047079 1.707 -1.339795
-5.1621218 0.02092172 0.25463611
5.106791 -0.02092701 1.053058
-1.6756279 -0.7384342 -0.29017141
-5.3556108 -0.02092709 -0.085715249
-4.7402201 0.020923451 0.78959382
-3.6000941 -0.020925609 -0.7599647
0.99633467 0.31999731 -1.705338
0.82861513 -2.024754 0.99793071
0.51194322 0.21251079 1.809726
1.690945 -0.709521 1.293062
-0.3231737 1.707 0.61830199
6.0819349 -0.020928189 0.74557477
-0.45544779 1.707 -0.6945219
-0.040161751 0.28183529 2.7707829
-0.18715879 0.50482118 1.810887
-0.53180289 -1.357558 1.021085
1.051005 1.3460881 0.88338798
-0.26418889 1.707 1.5162539
1.132831 -0.9772588 -2.145752
-5.560112 -0.02092707 -0.434912
-4.00176 -0.02092509 -0.9508543
0.79754353 -1.970937 1.42084
-0.80476332 1.592329 1.141632
-3.4890821 0.02092397 0.1141096
0.5958941 1.707 -0.2943143
-1.715121 -0.1021331 1.67518
-4.80899 0.020923819 0.4060531
-2.766032 0.020924 0.54724431
-3.221633 0.02092395 1.045858
-3.1286199 0.020924 -0.2088913
-5.436769 0.020920649 -1.090502
-1.707 0.4612695 0.79055327
5.8450661 0.020919381 -0.62478459
5.6126089 -0.02092788 -0.3601771
3.6067209 -0.02092527 -1.258756
-4.6511369 0.020922329 1.539026
1.176919 -0.99888569 -2.1752989
-0.2527099 1.707 -0.80643678
-1.175104 0.3435249 -1.995681
-1.707 0.34704351 -1.623687
-2.9304481 -0.020924451 0.0073568821
3.305084 0.02092395 0.87018538
0.1529016 1.738683 -0.3889454
-5.2610421 -0.02092604 -1.503633
1.667374 -0.7466892 -1.328892
-6.173738 0.020920031 -0.77296668
-0.46359321 -1.507792 2.016398
1.707 0.38970381 -1.28811
-5.3390288 0.020920919 -0.059957359
0.2037273 -1.406231 2.0551441
-0.50846767 -0.87134302 -1.705338
1.707 -0.2045372 1.4432271
3.442131 -0.020927601 0.84404558
-1.020506 1.393558 -0.60796291
-0.32923609 1.707 -0.8477965
-1.280441 -1.133621 0.53943771
-3.6161129 -0.02092408 1.823495
3.322921 0.02092302 -1.471038
-3.823235 -0.02092549 1.35532
-1.721615 -0.38941649 -0.81815511
-0.75551271 -1.65855 1.260358
0.63557643 -1.0318331 1.7407711
4.4529819 -0.020926541 0.90795243
-1.131373 0.68002689 1.730183
-2.7697051 -0.02092316 1.356151
-2.3176601 0.01466495 0.453116
-3.4190731 0.020923929 0.66404092
3.936939 0.020923311 1.50604
-3.4674039 0.02092392 -0.090507209
1.486524 -0.92753911 -1.410125
-1.7067 0.67148632 1.568282
-1.4574471 0.7221601 1.703106
-1.464476 -0.94958591 1.596965
-4.1348758 0.020923059 1.5830899
-1.707 -0.52934408 1.347767
-4.974474 0.020921109 -1.037169
1.707 0.57995361 -1.521699
-0.0096554887 -0.034876939 -2.8813641
0.59473503 -1.707 -0.055772372
-3.241986 -0.020926939 -0.070101261
3.902617 -0.02092672 -0.2345899
0.28983879 0.98414397 -1.705338
-3.1381941 0.02092378 1.8070951
-3.0457361 -0.020925211 1.255842
-1.707 -0.063540012 1.359219
-3.9555211 -0.01026931 -1.2811871
-0.32375839 0.18882561 3.1808691
3.891422 -0.02092652 -0.8684715
-2.5194919 0.020924 0.41925079
0.87390667 0.91225922 -2.015954
0.30403641 -1.406231 2.0375869
0.82423311 0.104063 -1.724097
3.142339 -0.02092644 1.1965719
5.2492528 0.02091991 0.36426011
1.707 -0.1470878 -0.36552259
-0.73121458 1.68196 0.99578083
3.8978231 -0.020926749 0.94497758
-0.0073594302 -1.516441 -1.705338
5.2735858 0.020920379 1.455547
3.717592 -0.02092772 -0.3624126
-1.626673 -0.78738952 0.44877449
0.921583 1.49248 0.50834262
-1.137302 1.2767611 0.7708801
0.43867439 0.38994381 -1.7766449
0.77467221 1.6393909 -1.639006
5.0972848 0.020922869 -0.27733049
-0.171517 -1.707 0.27735811
0.76360512 -1.951628 1.526716
5.2684431 0.02091998 1.9569139
0.99888867 1.350224 1.690641
-0.62336701 -1.704689 1.178519
-4.7251291 -0.02092554 -1.357542
1.211019 1.1860729 1.293263
-1.415053 -0.22344629 -2.1363339
0.1035539 -1.610502 1.298504
-1.721615 -0.52175051 -1.366207
-1.008814 -1.405249 -1.41186
-2.3590939 0.020924 0.2468673
0.72612858 -1.886717 0.88653243
-0.20346721 1.707 -0.6654014
-0.2030246 1.039917 -1.705338
1.721615 0.1269825 -0.28477341
-0.22855499 0.85338438 -1.856207
-1.6465549 -0.36331981 -1.705338
-3.5659411 -0.020927761 0.39726749
1.1589119 0.54926682 -1.705338
1.1509939 -0.71650982 -2.065836
-0.93250608 -1.481557 1.047453
-1.150821 1.246271 0.94141853
-3.576648 -0.020923819 -1.416149
1.324398 -0.001754194 -1.705338
-3.289799 -0.02092728 0.51570141
4.0978889 -0.0021609999 -1.115779
-4.3276601 0.02092219 1.827913
0.91869742 -1.222321 -2.164396
-0.13701729 1.707 -0.03377229
5.720355 0.02091944 -0.63078541
-3.597367 0.020923641 1.20682
-4.4332752 -0.02092549 0.26544169
4.0166392 0.020923249 0.50377929
0.78094512 -1.981662 0.68494189
1.707 -0.086233564 -1.618903
5.08533 -0.020927681 -1.1655051
-0.29936019 -0.70782638 2.1920929
-1.7126271 -0.3204 1.073074
-5.0395141 0.020921061 -1.093392
-1.7695431 -0.095012568 0.33622381
1.524397 -0.87269509 1.150673
-5.6181979 -0.02092649 -1.219121
1.419252 0.99481082 -1.517554
5.3240781 -0.02092707 0.86434931
2.0161979 -0.020923 0.087742299
0.68151969 -0.2468826 -1.815954
0.9891597 0.74569511 -1.705338
5.9826431 0.02091925 -1.494494
4.5145321 0.02092154 -1.139397
-1.599579 0.01169896 -2.228724
-0.36464351 0.19169611 3.408308
-0.56975693 -1.707 1.4946229
3.3556941 0.02092386 -0.063816793
4.9750328 -0.02092788 -0.85260957
-1.5634201 -0.85064203 1.393146
6.0573659 0.020919209 1.912882
-1.259109 1.137983 0.86246562
2.981061 0.02092341 -0.69993597
-5.4905238 0.020920761 -0.52511388
-5.8253808 0.016476929 -1.505391
0.58539742 1.707 0.89023697
1.471094 0.61952013 1.7088619
4.431231 -0.02092649 -0.044928029
1.061072 1.352991 -1.5135241
2.9933851 0.02092324 -1.100184
-5.6393809 -0.020927479 1.082767
3.4390121 0.01875853 0.32679319
5.437274 0.02092172 -0.63486588
-1.721615 -0.5480268 0.37985209
-4.7667222 -0.02092747 0.48800299
-0.80885518 0.80101979 -1.9752361
0.01098463 0.90889972 -1.8787121
-0.96145529 -1.452608 0.20784549
-5.2808051 0.02092162 1.581792
-0.31151301 -1.30414 0.90355271
0.071127892 1.007591 1.758601
0.0007552281 -1.598464 2.150178
5.3695049 -0.02092845 -0.87986171
-3.277679 0.020923721 -1.190245
5.781363 -0.0209278 0.59130448
-5.599082 0.02092164 1.05492
-5.261703 0.020920791 -0.95039523
-0.27029711 1.406231 1.782611
3.5709081 0.020923831 0.64808261
0.1175856 -1.707 -0.75119108
0.23291031 0.89054102 -1.869819
0.8397631 1.5743001 1.116963
-0.50468022 -0.60393578 -1.796717
4.587297 -0.020926811 1.128345
0.61832362 0.79999232 -1.919299
-1.721615 -0.052544091 -0.1306354
-0.87330532 -0.37213409 -1.894559
-0.28216529 -1.406231 2.1379271
-4.1253672 0.020923071 0.25604719
-0.91186422 0.26733801 1.768556
3.502903 0.020923721 -0.29978651
1.707 0.27563041 1.203535
-0.005319871 0.036039319 -2.54252
3.9666469 -0.020926241 1.477533
6.1485658 -0.020928601 -0.3669019
-0.54097611 -1.707 1.624404
0.87064868 -1.543413 -1.664825
0.486918 1.707 -1.273904
-4.005578 0.020923261 -0.42037821
0.3342559 -1.045242 2.335289
-5.0957289 -0.02092799 0.54018712
-1.721615 -0.063377142 -0.7652815
0.40844741 1.707 0.57297999
-0.44776061 -1.30414 0.89122999
3.3251531 0.020923709 -0.31942081
-1.543584 -0.41938889 -1.705338
-4.7709441 -0.02092593 1.893539
-0.02651572 1.282997 -1.705338
-3.4623899 0.020923739 1.179067
0.2263103 1.707 -1.121236
-0.42100489 1.061478 -1.705338
-1.051427 -1.0806381 -2.1858449
-1.586828 0.82723469 0.57567853
1.51191 -0.90215212 0.47962341
1.707 -0.40151611 -0.46048519
1.721615 -0.34454 1.103651
1.331478 0.66646332 -1.705338
-1.341732 -0.43485361 -2.0924439
-1.524784 -0.76819998 -1.705338
0.1017066 -1.667611 1.799068
-5.9801641 0.02092023 -0.9922877
-1.61965 0.77744168 1.41081
-4.9059949 -0.020925909 -0.75833029
-3.107626 -0.020925829 1.017814
0.35951501 0.1545314 -1.7317441
-0.66261572 1.393337 -2.173552
-3.811933 -0.0209263 0.52957082
0.15061571 -1.30414 1.415457
5.4848852 0.020919761 0.66162258
6.0805302 0.020919129 1.240676
-6.0366979 -0.02092718 -0.65232438
1.662307 -0.31273189 -1.705338
-1.752869 -0.1174682 0.3026154
-0.6372655 -0.94857508 -1.705338
0.3534078 -0.83779699 2.3558199
5.3673811 0.020919871 1.005457
0.4926177 1.007732 -1.705338
0.2270769 1.707 0.91189009
-0.30399591 0.2480116 3.392899
-1.721615 0.098514721 -0.82680869
0.025488179 -1.73897 -0.1120826
3.0804491 0.020923549 -0.48385569
1.107671 0.53640771 -1.705338
-4.3988171 0.020922 0.71957922
-5.5080938 0.0209214 0.86298668
0.74336201 -1.6707 -0.038800661
-0.66088277 -0.85651058 -1.705338
0.037709821 1.707 -0.98421538
-3.9716029 0.020923279 1.544301
-0.18620829 1.707 -1.28386
-6.1393971 -0.02092715 -0.91427732
5.274837 0.01446092 -1.505393
0.61263013 -0.55970168 -1.724514
5.8947668 -0.020928741 -1.323432
-0.28875479 1.525367 -1.705338
0.81540132 1.598662 -1.407539
1.73949 -0.299445 0.29491711
6.1430049 0.02091906 -1.1045721
-0.93544048 -1.478623 0.018552359
5.9375019 0.02091928 -0.37338391
5.0036039 -0.02092744 -1.268603
-4.7311668 -0.02092736 0.6230551
-3.0665691 0.02092381 -1.402248
-1.462312 -0.9517504 0.7443822
5.537714 -0.020927381 0.81433749
1.721615 0.23676731 1.600032
0.33812359 -1.5480371 0.7204622
-4.9510841 -0.020925879 -0.98569357
-0.79240268 0.42927191 -1.862352
-1.502265 -0.91179782 -0.72909451
-1.721615 0.37401551 0.70928973
0.27291679 -1.667611 2.145993
-0.86639929 -0.23705509 -1.861572
5.6286259 0.02091961 0.075846791
4.350709 0.020920999 0.29607251
0.43974659 1.218281 -2.0581729
-4.6331868 0.020922709 1.3196011
4.4271088 0.020920999 1.4427921
0.090901367 1.406231 2.0273061
5.7192469 0.020919509 0.66946602
-3.5973959 0.0209236 1.3514791
1.707 -0.0078243325 -1.233011
1.634089 0.77997339 1.263966
3.7714019 -0.020925621 1.6634541
1.436152 0.97791129 1.4838721
-6.026186 0.020920141 -1.374257
-5.3783541 0.0209208 -1.382821
-0.2493867 -1.667611 1.817325
1.016571 -1.3974921 -1.046852
-3.3342819 0.020923929 0.8633852
-5.207377 0.020920981 0.26544249
5.0888319 0.020922109 -0.62328762
2.974757 0.02092367 0.197449
3.7049429 0.020923531 1.308882
-0.87407851 1.37446 -1.705338
1.277506 0.1704264 1.730531
0.81658411 -2.043391 1.149847
-3.3149731 0.020923959 -0.30436131
-1.359979 0.57653069 -2.168021
-0.78478652 -1.629277 -1.36405
-4.1670089 0.020923009 1.508163
0.43115839 0.26964051 1.8118531
-0.4068982 -1.707 -0.1829308
0.24167091 -0.099644303 2.661859
-1.721615 -0.36430109 -0.32179439
-0.63801682 1.707 0.58890319
-1.193543 0.98952758 -2.21545
2.8375621 -0.02092465 -1.287575
-0.2525458 -0.1872105 2.9222701
0.84513712 -1.568925 -0.91011739
1.721615 0.2761226 0.87509292
-4.9123049 -0.02092587 -0.90753287
-2.118963 -0.020923 0.33988851
-4.8563352 0.020921251 -1.119495
-3.0528131 -0.02092528 -0.74102962
-0.63102841 1.4079829 1.7134449
3.872983 0.02092348 0.381262
-0.99753982 -1.416523 -0.64777142
-0.208967 -1.406231 1.960848
1.132514 -1.1178581 -2.239403
-1.583572 -0.83049017 0.30939931
1.03992 0.9602778 -1.705338
-5.7796979 0.02092045 0.199007
0.56721288 -1.707 -1.2545919
-0.97431701 -0.50400132 -1.705338
1.707 0.054888479 -0.72745538
1.09927 1.02466 -2.1490221
-1.1570849 -1.256977 -0.33984089
1.282251 -1.131812 -0.50787961
4.0225062 0.02092324 0.68226391
0.035767481 0.52628648 1.808655
-1.156628 0.38020661 -1.9912519
-4.7869158 0.02092308 0.28185311
4.3245478 0.020920999 1.611303
4.5408721 -0.02092661 -1.376722
3.6597619 0.020923819 0.47700161
2.858597 0.02092389 1.29792
3.604213 0.02092303 -1.458882
-4.5613918 -0.02092582 -0.45299771
4.4220209 0.020920999 0.52758121
-0.74164718 -1.672416 -0.72234792
4.3345518 0.020920999 -0.84870923
4.0204339 -0.020925971 -0.79684889
-0.077840596 0.30637339 1.821761
0.76813459 1.645928 0.068246961
4.4895458 -0.020926541 -1.366943
4.6541328 0.020922501 -0.1979344
-1.184258 1.220156 1.672372
-0.1007243 0.74075788 1.786351
0.30017731 -0.81159008 2.014801
0.43457031 1.492081 1.708216
0.2051288 -1.707 -0.47068861
5.7729168 0.020920649 -0.96084899
0.89599431 0.74563497 -1.988749
0.089996703 1.738969 -0.38598791
6.0931091 -0.020928711 -1.0254689
-1.721615 -0.1618453 1.2111911
-0.1526749 0.28652599 -1.7207789
1.205273 0.91280341 -1.705338
-0.68239403 -1.313816 -2.1678121
-1.721615 0.57023901 -0.98500949
-6.1975918 -0.01792784 -0.2393025
5.894979 0.020919319 0.35819131
1.707 -0.3899734 0.89282823
-0.89591658 1.518147 -1.276279
3.2896571 0.018700119 1.998607
0.92673922 -1.42978 -1.705338
3.06355 -0.020926511 -0.078566998
0.2815637 -0.001195416 2.6888869
-1.013967 -1.4000961 -1.0818
-1.5241621 0.88990152 -0.33698171
-1.449482 0.94760978 0.96734369
-1.535378 0.36144161 -2.196214
0.81051809 -0.37634209 1.776109
-5.7996521 0.020920429 0.29253399
0.47423509 0.75968641 -1.874426
-1.378662 1.01843 1.5455101
-4.528615 0.020922 -0.025024669
-1.707 0.5947206 1.215199
4.406414 -0.020926369 -1.402362
-0.3737393 -0.084114157 1.821761
2.892684 -0.020925149 -0.2474934
0.2779094 1.707 -0.52254808
-1.286057 -1.128005 0.2071656
-5.2847672 -0.02092698 1.6649899
-0.68401557 -0.46136391 -1.823674
4.3607168 0.020920999 0.5118075
-1.476686 0.93737668 -0.2615808
0.63888752 1.6885509 -1.658747
-1.147296 1.249796 0.99021327
0.26345351 1.707 0.44868881
0.53671801 1.707 -0.27723891
0.86838591 -2.095535 0.45394441
0.24454939 -1.648729 0.50341749
-0.62107491 1.707 -1.004526
-1.4510829 0.94600928 1.1440589
-5.13659 0.020921649 1.653258
-0.63788879 1.351019 1.717129
3.648499 -0.020928349 -0.0112025
2.963973 -0.020925719 0.97682887
0.93009621 1.203334 1.706502
0.72785407 -0.34124151 1.7847691
3.5623131 -0.02092487 -1.3941979
5.1782041 0.02091996 1.057713
0.98601282 1.42805 -0.46240491
-1.895902 0.065668181 -1.6207891
4.8033242 0.020922139 -0.73997313
0.77995938 -1.490116 1.696453
-3.9470789 0.020923359 1.360831
-3.0235629 0.020924 -0.84272128
3.922009 -0.0209266 0.63025928
-4.4334111 0.020922 -0.82765269
0.03809103 1.5826221 -1.705338
-0.82763851 1.162578 -1.705338
0.1629463 1.707 0.181743
0.4859696 0.63673413 -1.83973
4.0597019 0.020923181 0.01138234
-1.074721 0.77729571 -1.705338
5.7608109 -0.020928379 -1.457801
4.8020558 -0.020927019 -1.3648469
0.4988035 -1.707 -0.25711191
-0.68314588 1.70187 0.76336813
-1.26252 1.059077 1.692665
0.93495518 1.479108 0.002300113
5.8335762 -0.02092799 0.1987191
-0.071104042 0.34688139 3.1554959
-0.73125762 -1.160942 -2.100929
-0.8132571 -0.81498247 -1.962268
-0.14755251 -0.81058961 -1.7299711
1.260861 -0.6835798 1.720399
-4.7916889 -0.020925909 -0.66455382
1.721615 0.45869789 -1.259778
-0.55086869 -1.371593 -2.1345119
0.17052411 1.707 1.122155
-3.832962 -0.020926051 1.136758
-3.7048471 -0.02092699 0.1067409
-4.9346209 0.020921931 1.60668
-0.59935778 -1.2005841 2.303118
3.5305231 -0.020928569 -0.01506141
0.75305378 -1.424489 1.703258
-4.1618552 0.020923009 1.679605
1.707 -0.4819178 1.588552
5.3289189 -0.020928711 -0.60020351
-1.707 -0.58646423 -0.26142189
-0.28384691 -1.1897939 -1.705338
3.5289159 -0.020925829 1.524673
0.1327354 -0.1291496 2.3485589
-4.6316538 -0.0209265 1.210086
0.14804789 1.555645 2.150178
2.980396 0.020923991 1.50897
-0.128451 -0.001224352 2.235013
3.7593479 0.0209236 -0.5088945
-5.0379219 -0.0209265 1.755236
1.4494539 -0.96460873 -0.64671898
-4.3545909 0.02092189 1.464515
0.67769659 -1.704127 1.303849
-0.59922302 -0.91177332 -1.705338
-0.04774962 0.021183221 2.0639369
-0.3369934 0.68957198 -1.829126
-0.99497628 -0.2176939 -1.923053
-0.44614851 1.707 -1.284928
5.6848168 0.0209208 -0.70212412
0.12939321 -1.603196 0.95607078
-0.01321974 0.25622821 1.821761
4.7808318 0.020920999 1.0733891
0.88142818 -2.1162291 1.427141
-3.6735599 0.02092352 1.431234
0.1456852 -1.086567 2.356024
5.7981801 -0.02092888 -0.88651192
2.314177 -0.020923 0.08062914
-0.37140971 1.707 -0.6707226
0.68485677 -1.1979049 1.7249351
0.27564189 -1.707 -0.108308
1.684098 -0.72605169 -0.52537072
-1.1091551 1.304908 0.28598449
0.93596131 0.72208869 -1.705338
0.1113806 -1.4202189 1.225636
0.80345768 -1.610604 -0.40602741
1.10627 -2.505667 1.358837
6.0852709 0.02091912 1.711095
2.915834 0.020923311 -0.88482392
1.203844 -1.210218 -1.293691
5.7373152 -0.020927859 0.16390979
-0.065932833 1.667611 2.0127549
1.707 -0.42484581 1.229208
-3.5517981 -0.020925559 -0.7685023
1.647833 0.76622939 -0.3568804
-0.1780317 -1.517148 -1.705338
-0.87000358 0.4804261 -1.705338
0.74726927 -1.636721 -1.658747
0.92493612 -1.05281 -2.0898509
4.900764 0.02092085 -1.272566
4.0332298 -0.020925829 -1.158306
1.512995 -0.90106779 -1.474251
3.4885211 0.020923819 0.87748152
1.46287 0.95119327 0.62536412
-5.4899259 0.02092075 0.3501952
5.2561712 0.02092028 -1.362332
-0.53611952 -1.496222 0.99938339
0.89553362 -1.271912 -2.216861
3.0350571 0.020923451 -0.71543968
5.994144 -0.02092839 -0.38563901
0.82845098 -0.97444671 -1.705338
-5.0258689 0.020923899 0.35719371
-0.1532826 -1.73897 -0.31230369
-3.416131 -0.020926019 1.05284
-1.155093 1.25897 0.2333793
3.3505249 0.02092321 -1.159932
1.721615 0.39397791 1.143012
0.093928806 1.707 0.8978579
-5.5663552 -0.02092712 1.920294
-0.99502689 -1.419036 -0.72394431
-3.4016149 -0.02092647 0.88530058
-4.7578149 -0.020926969 0.97468418
-0.021440679 -1.697369 1.242753
-6.0434699 -0.020927491 0.40181139
-4.344543 -0.020925259 -0.68022698
-1.478312 -0.1332664 -1.705338
3.9493439 0.020923359 -0.77835268
0.2078833 1.707 -0.79307282
-1.707 0.1787173 1.2060159
3.3302619 0.02092316 -1.247164
1.707 -0.46661079 -0.61147648
-0.99722773 -1.416835 -0.4791809
6.158813 -0.02092839 0.43658069
2.8904891 0.020923721 0.62238592
1.0785691 -1.318523 1.552182
0.4245784 0.41183579 1.80188
0.3869558 0.43527359 1.802923
-0.4153744 1.707 -0.82626653
-0.82350957 0.93936658 -2.0337059
4.1143942 0.020923089 -0.2124007
-4.3680401 0.02092186 -1.48622
0.3047879 1.707 0.4173871
-1.6100121 -0.80405039 0.88068438
5.5613198 0.020921569 -0.53343529
-0.56050289 0.02369282 -1.7699651
0.067429297 0.1381412 2.2775221
4.552351 -0.020926651 1.333949
-0.8460353 -0.91346902 -2.006887
-1.600737 0.81332618 -0.72059357
-6.1041498 -0.02092728 -0.3887811
-0.67719591 1.704335 1.3624229
-3.3194821 -0.020924831 -0.97565728
1.062957 -1.351105 0.48972869
-1.105077 0.60291398 -1.705338
-5.129159 -0.020926051 -1.049726
-4.4083471 0.020922 -0.64428771
-1.707 0.018799931 1.609459
-1.0026979 -0.2684679 -1.9316911
3.596365 -0.02092563 1.617063
-3.5418551 0.020923451 -1.501644
5.0337892 -0.02092866 -0.2454607
1.068022 -1.34604 -0.60985982
-0.03046523 0.020712631 -2.7296071
1.707 -0.2110346 -0.0121797
4.3518019 -0.02092628 0.67876792
1.308617 1.088475 1.098048
1.433982 0.98008043 0.37749261
-5.628036 0.02092058 -0.88715172
-1.721615 -0.1096312 1.070176
-5.896349 0.02092085 1.666203
2.8218601 -0.020924579 -0.1485824
-1.5644161 0.83045852 1.682142
0.1530752 -0.223188 -1.712002
-1.658025 0.75603819 1.419655
-5.0966649 -0.020927031 1.374703
0.43198901 1.707 -0.53207242
4.1084652 -0.020925401 -0.68673712
-0.62684733 0.92800528 -1.705338
-0.2384413 -1.406231 1.886618
3.1968579 -0.020925971 1.386487
-0.56185019 1.707 0.227272
0.50339562 0.98809868 1.7537071
-1.38649 1.027573 0.54514378
-1.721615 -0.52390897 0.46638361
0.016711149 -1.707 -1.009786
4.2137971 -0.031282529 1.5671279
-5.9655709 0.020920251 0.045881391
-6.028409 0.02092018 0.0037357809
-4.3852339 -0.020925559 1.5223891
0.05259442 -1.707 -0.27446741
1.707 -0.49859571 -1.229133
1.721615 0.50363088 -0.4520627
-5.0323482 -0.02092687 1.4292181
0.53012317 1.641605 1.6926661
-0.1281732 -1.707 -1.022265
1.094552 -0.77560347 -1.705338
4.388485 0.020920999 1.103543
1.707 0.47415751 -0.49651831
-6.1570892 -0.02092763 0.76807439
-0.33879241 1.005434 -1.923152
1.5890239 -0.82503831 0.39793831
0.2128343 0.77442127 -1.8406481
0.45982501 1.120322 1.746151
-1.520106 0.89395672 0.47806951
0.43153009 -0.29209399 1.810174
6.1168618 -0.02092831 0.49918321
0.01753032 0.87317538 1.77258
5.5934892 -0.02092747 0.77578902
3.096267 -0.02092677 0.97630841
5.1905298 -0.020928269 -0.79914403
5.1974421 -0.020928331 -0.75761062
5.6635189 -0.020927699 0.3228302
-3.370965 0.020923721 -0.99341363
-1.370106 -1.043957 0.400538
0.4073281 -1.635532 -1.705338
-2.7535551 -0.02092303 0.49484381
6.1064472 0.020919099 -0.73877758
-0.26268759 -1.707 -0.79383761
-0.2030441 1.707 0.034403618
-0.0081832111 -1.139191 -1.705338
0.05365305 -1.73897 -0.2251382
-1.402638 -0.52863491 -1.705338
-1.335742 -0.80927008 -2.2229249
5.7469931 -0.02092791 0.026360691
1.707 0.0335964 -1.653079
6.052218 -0.02092851 -0.52779299
-3.696492 -0.02092704 0.2766383
4.6432118 0.020921471 0.059947759
-1.777365 0.079854727 0.348142
1.707 -0.62073427 -1.57523
-5.950429 -0.02092709 -0.84768528
0.098000817 1.707 1.350809
-4.9702921 -0.02092769 0.63031101
-1.632934 -0.78112793 -0.59987849
-1.204494 -0.34998769 -1.705338
5.9039488 -0.02092861 -1.449378
0.3667545 1.707 -1.3568439
-1.05203 -1.362033 -1.273742
3.1540821 -0.02092468 -1.3581899
-3.806978 -0.02092596 -0.68372202
5.7981958 0.020919429 1.486172
-5.770493 0.020920459 -0.52400458
-5.9520092 0.02092026 -0.95424151
-1.690287 0.71111 -0.1679612
1.707 -0.1131917 0.23757321
0.83076471 -2.0637579 1.572176
3.5793419 -0.0209269 -0.64638191
4.084549 -0.020925559 1.729434
1.211421 0.83972389 1.712553
0.45448929 -1.707 0.062521778
-2.0584209 0.020924 0.127241
3.0732279 -0.020926589 0.42798331
-3.6947789 -0.020924751 1.5969321
1.649947 0.76411521 1.509569
0.0259692 0.3754065 -1.729297
-1.707 0.47814801 1.472885
-0.1684368 -1.707 -0.02348608
-4.9083142 0.020922059 1.5441639
-1.707 0.2994045 -1.1545219
5.3517218 0.02092039 -1.271135
4.3702502 0.020920999 -0.01082116
-0.2105886 0.73124099 -1.827289
-1.044688 0.85987139 -1.705338
-0.3163133 -0.01322921 2.862519
-4.0013728 -0.02092508 -1.039801
0.077162519 -1.438832 -2.111192
-3.6594069 -0.020924149 1.809364
-3.8838611 0.020923359 -0.98723209
-1.707 0.1289404 -1.595578
-4.6075578 -0.02092579 1.801038
-3.374928 0.020923831 1.10857
1.1976039 0.56984937 -1.705338
-3.5246029 0.02092346 1.987847
-1.707 0.4697198 0.8393997
1.707 0.29680619 0.64135301
5.6167102 -0.020927491 1.7038831
-3.963834 0.02092333 0.94129682
1.721615 0.55638778 0.49912891
0.44409809 1.707 1.649012
0.32363951 1.666943 2.145185
0.4341633 -1.598899 1.081466
1.450148 -0.093968779 -2.1190181
3.8727231 0.02092322 -1.140777
-0.2129302 -1.489804 -1.705338
-1.721615 -0.2145095 1.626677
1.721615 0.4183456 0.27230299
0.093769357 1.738969 -0.34039101
-4.5385079 0.020922 -0.66184008
0.71429229 1.731917 -1.695787
-4.6864672 -0.02092596 -0.51814717
-1.2493629 -1.164699 -1.593486
-5.2152472 -0.0209272 1.381237
-4.711575 -0.02092595 -0.56159139
-1.46803 -0.9460324 -1.69932
5.7279258 0.020919669 1.754691
5.0734768 0.020923831 0.1810973
0.4370476 -1.132834 -1.705338
0.89699107 -1.500101 1.107733
-6.185133 0.02092001 0.99639088
6.026422 0.02091918 1.040553
1.420097 -0.57644069 1.715019
1.329582 -0.099117734 -2.053962
-2.9561789 0.020924 1.050316
-0.72034341 0.70812178 1.758342
4.0081129 -0.020926051 0.1427006
-0.2223272 0.1089766 2.559397
2.8002889 -0.02092441 1.402576
0.1064615 0.26641491 2.7820711
-0.7342881 1.2025909 1.720955
1.265955 0.1097567 -1.705338
5.5661898 0.020919681 0.42952171
-1.721615 0.25511131 0.61241812
1.721615 -0.01730204 -0.1171364
1.73949 -0.3016395 -1.0996929
1.1047601 1.309303 -0.3801851
-1.158262 1.2558 -0.2243164
4.0662909 0.020923121 1.832857
-3.2762799 0.020924 0.019133469
3.9458921 -0.02092644 1.092384
-5.154994 0.02092248 1.134069
-1.02064 1.393422 -1.108413
-0.2960729 1.450153 -2.169394
3.3954101 -0.020924751 -1.395618
5.718421 0.020919509 0.044969141
5.6929932 0.020919541 0.89587849
-0.667261 1.707 0.34753531
-4.9802618 0.020922979 0.9359054
5.640614 -0.020927399 1.262439
-6.13059 -0.020927411 0.02420908
-0.2157215 -1.707 -0.54787737
-6.0191431 0.020920189 0.2699011
0.36527139 -1.594502 0.55638641
-0.33153889 1.520223 -1.705338
-3.0519209 0.020924 0.50481713
1.683634 -0.72717261 0.2456564
-1.721615 -0.28612441 -0.48251501
-5.749517 -0.02092666 -1.047976
5.287662 -0.02092885 -0.1118162
3.293047 0.02092365 -0.41668081
0.0035925561 -1.7031029 2.2221899
4.2754669 -0.041442029 -1.200384
-4.7437701 -0.02092677 0.24796639
0.4406305 -0.74928433 -1.716154
4.8548002 -0.02092674 1.616923
1.731091 -0.244085 -1.661925
-3.632616 -0.02092611 -0.58439767
3.847616 -0.02092707 0.75238031
0.48305851 1.707 -0.43040949
0.79599631 0.96979278 -1.705338
0.76354802 -1.240737 2.1403811
0.87877637 -2.1116359 1.1666501
4.0447659 -0.020925811 -0.088605113
3.3614299 0.02092327 -1.058797
2.958401 0.02092302 -1.4775209
1.087057 0.57193261 -1.705338
1.130092 0.9527362 -1.705338
4.4863491 -0.02092661 1.280831
-3.243638 -0.02092682 0.69961029
-0.0152373 -1.707 0.053015351
0.61570227 0.1032293 -1.785822
-4.490356 0.020922 -0.1451378
6.1661091 0.020919031 0.93010569
1.707 -0.53692979 -0.74981779
1.721615 0.37639391 0.1370341
0.2627601 -1.707 -0.78178632
0.36886361 -1.707 -0.56407851
-1.098421 -1.2088079 -1.705338
1.707 -0.3359409 0.1157215
-1.721615 0.1269619 0.57771122
-0.58465809 -1.02161 -1.974817
-5.9976439 0.02092021 1.049848
-3.6258931 -0.02092558 1.271173
3.048866 -0.020926369 -0.68525392
0.88387573 -1.259533 -2.170387
-0.1198876 1.707 0.92187262
1.721615 -0.3027685 -1.2531919
-1.045396 1.095172 -2.1554511
5.0697141 0.020922519 -0.4453935
-5.9109502 -0.020927589 1.383624
-3.20118 0.020924 0.93242699
-1.278922 1.135141 -1.213266
1.220415 -0.79927123 1.714866
-1.0142961 1.072834 -2.132355
3.87672 0.020923469 0.47894061
-0.71289611 0.3934828 1.782027
1.735185 -0.66753829 -1.658747
1.721615 -0.047224618 0.087422952
4.6596532 0.020920999 1.426001
-0.2652165 -0.70207459 2.3599379
-2.794477 -0.020923359 0.67839199
-4.099329 0.020923121 1.318143
-0.8482933 -1.56577 1.565208
-0.49128991 0.310274 -1.775164
-1.707 0.60503048 -1.289104
1.721615 -0.61751533 1.19207
0.31848699 -0.80849838 -1.864422
-5.8088851 -0.020927159 -0.44174099
4.2192879 0.001610758 1.775318
1.73949 -0.3008565 1.2894419
3.5280759 -0.020928999 0.29787481
-0.78124899 1.632814 0.1190908
-3.0376799 -0.0021599999 0.289354
4.2415919 0.02032241 1.971723
0.75586939 -1.60104 1.690068
-1.294268 0.5471347 1.7273591
-3.583303 0.0209237 -0.543167
-1.707 0.33894119 -1.059695
-0.2043474 -1.667611 2.0042109
3.532618 -0.02092547 -1.163527
-1.4304971 0.98356611 -0.6029374
0.70015419 -1.6948251 -0.25350481
0.099765509 1.58947 1.698087
0.39541891 1.061154 1.753031
-1.693032 -0.7044825 -0.87101883
5.2203031 0.020920301 1.623687
-0.052627839 -1.707 -0.56710857
1.000628 0.29737681 1.759325
3.602782 0.02092376 0.80518788
-0.066120297 0.30127701 2.886543
1.707 -0.5968833 -0.42424479
2.7972729 0.02092362 0.53185159
1.707 -0.1796636 1.519932
-0.72031081 -1.686476 0.9738096
5.4035358 0.02092096 -0.99023581
-1.585247 -0.68654531 1.696169
-1.3800499 -1.034012 0.071030512
4.25176 0.020920999 -0.31805679
1.707 0.3336105 -0.74177343
4.5298991 -0.02092634 1.8596931
0.54183191 -1.4547859 -2.216212
1.57856 -0.41252661 1.699222
-1.4384691 0.54477948 1.713791
-3.777158 -0.02092422 -1.3224109
1.792081 0.0044360762 -1.695787
-1.535226 0.87883741 -1.537758
0.50851637 -1.076696 -1.705338
3.5408349 0.020923469 1.904611
-0.3172017 1.707 0.172031
3.2070351 0.02092348 -0.70740801
0.40179959 0.64165831 1.786654
5.1905499 -0.020927681 -1.310588
1.921567 -0.0100341 0.4140259
5.3191662 0.0209201 1.7429889
0.75421679 -0.6595974 -1.899712
5.6206942 0.020919619 -0.1009759
-0.27389881 1.707 1.234163
-0.99912822 1.385798 1.688007
-1.721615 -0.39068559 1.017424
5.8048401 0.02091942 -0.12600531
3.477963 0.02092397 0.1070357
0.8167792 0.1776818 -1.721258
2.3581481 0.020925 0.2656593
3.9426889 -0.02092647 -0.062361151
1.721615 -0.2600545 0.15944581
-5.12076 -0.020926099 -0.67023218
-0.3195183 1.23544 -1.705338
-0.9357394 -1.478323 -0.76412559
1.721615 -0.40460989 1.417199
5.9130492 -0.020928079 0.2704564
-4.988945 -0.02092717 1.107182
0.26615301 -0.86210859 -1.876261
-1.021753 -0.84181428 -2.074501
-1.256862 -1.1572011 1.588802
4.1108642 -0.02092539 0.5837546
0.97413248 0.1150853 1.762081
-6.0704598 0.02092036 1.857109
6.1957579 0.020919001 0.2372759
0.74232638 -1.019205 1.73385
-1.707 0.152015 -0.77942801
-4.6263142 0.020921331 -0.86844897
2.7495 -0.01163995 1.800675
0.14389861 1.581055 1.698963
0.95051187 -1.46355 0.74632072
5.163588 -0.020927539 -1.395879
-1.316797 0.47452751 -1.705338
5.626791 -0.02092761 0.48215431
-1.158785 -1.051795 -1.705338
-5.6227551 0.02092085 1.839606
1.4324811 0.79692012 -1.705338
4.8179979 -0.020926669 1.7319289
2.8684721 -0.03570338 0.2034668
2.7508919 0.020923041 -1.353428
-1.239458 -0.076053411 1.734488
3.348402 -0.02092872 0.37906939
-0.2332658 -1.707 -1.059438
-0.77137488 -0.1999398 1.783167
2.7495 -0.01874055 0.99330401
2.8464971 -0.020924781 0.050809622
1.011287 1.043849 -1.705338
-0.34059551 1.002201 1.759161
0.50985563 -1.697369 0.90567672
-4.208107 0.017981639 1.671864
3.7521219 -0.02092508 -1.365279
1.707 0.4103063 -0.49000561
-6.077095 0.020920129 0.1053622
-5.774405 0.02092045 0.97255051
3.189713 0.02092333 -0.96022832
1.707 0.396997 1.560896
-4.8065372 0.0209217 1.8273799
-3.734993 0.0056587462 -1.505391
1.018471 -1.395591 -0.14631569
-5.6638918 0.020920569 -0.2969898
1.702392 0.60670602 -1.703689
-4.9392629 0.0209211 -0.88129127
1.721615 -0.4362689 -0.90832537
-6.021678 -0.020927271 -0.34469101
-5.8216362 -0.020927429 1.989048
0.3952522 -1.592394 1.0657001
3.8835399 -0.020926841 0.58376843
3.6813769 -0.020926179 -0.94106901
4.081306 0.020923151 1.13457
1.73949 0.31880441 1.176675
0.44800019 -0.93277359 2.309128
0.81816018 -0.60725492 -1.705338
3.693176 0.020923311 -0.98102212
0.75530541 -1.658756 1.532415
-2.7495 -0.01069546 0.57681072
0.043717511 1.667611 2.0679791
-1.721615 0.1016525 0.1514236
-0.94645971 0.065350533 1.764958
0.19829249 0.20267721 2.754647
-0.49028999 -1.707 -0.84871548
0.1853983 1.667611 1.7713749
6.0481749 -0.020928601 -0.84960133
-2.9328201 0.020924 -0.61569577
-5.327889 0.020920919 -0.01709445
-5.8679271 -0.020927001 -1.070873
5.441133 -0.02092723 0.84353352
-3.2042329 0.020923991 -0.47437569
0.3490667 -0.16048449 3.2524979
5.996655 -0.02092831 -0.1190366
0.81319809 0.63582683 -1.928849
3.6470289 0.02092352 -0.64703888
2.84677 0.020923359 -0.52159631
3.885608 -0.020926829 -0.67459488
-0.5667398 0.55336112 -1.836758
-1.250705 -1.1260819 -1.705338
-1.707 -0.2908476 0.54865837
0.062715441 -1.707 -0.3203626
-4.553535 0.02092175 1.955566
1.133373 -0.0026025979 -1.954473
3.74667 -0.02092766 0.86273122
-1.3005019 1.113561 0.55972642
-4.5241609 0.020922 -0.3251498
-3.6414161 0.0209234 -1.4238
-0.12990139 -1.707 -1.543751
2.315572 0.020925 0.33126131
-0.4330284 1.412484 1.716493
5.6418099 0.02092026 -1.19761
-0.21438751 -1.707 -1.280481
-0.93894088 0.46333811 1.760268
-1.552404 -0.14459629 1.701942
5.827302 -0.020927871 0.58181942
-0.130628 -1.30414 1.118504
-3.1201119 0.020924 0.72023618
5.6359439 0.020919601 0.86375582
-0.66670978 1.707 0.71950227
3.7186389 -0.020926209 1.433287
-3.7586911 0.020923659 0.49140251
-0.30712399 -0.0131352 2.817564
-1.707 -0.2105889 -1.013252
0.191707 -0.85085511 -1.715696
1.721615 0.077970549 0.975169
0.1026407 0.2193785 2.5806639
1.721615 0.55744702 -0.90769279
1.721615 0.5487594 -1.040115
0.58131868 -0.47791609 1.785494
3.4214661 0.020923911 0.0083689392
-0.3663443 1.532856 2.0332201
4.7025132 0.020922819 -0.47932729
0.87833089 1.535732 0.34680039
-3.7542739 0.02092367 0.1079516
1.591741 -0.1112908 -2.242934
6.1190429 0.020919081 0.76157761
0.60225469 1.360919 -2.1406009
5.5829592 -0.020927509 0.61572748
2.311909 0.020924971 0.2413
-5.3604422 -0.02092698 0.1497919
1.84167 0.1033822 0.13874879
-0.53788412 0.32856461 -1.787738
-3.108562 -0.020925211 -0.7811445
-3.3595231 0.020923929 -0.30710459
-4.0973549 -0.020924469 0.71793509
-1.292274 1.121789 -1.6147569
-3.2075441 -0.02092585 -0.56975538
3.788197 -0.02092745 0.85716718
4.7647099 -0.020926779 1.281618
-6.1196809 -0.0209272 -0.70637453
1.578735 0.078984477 -2.234802
0.87778252 1.536281 1.585454
-5.455162 0.0209208 -0.1713316
-0.38954681 -1.707 -1.094036
-1.721615 -0.0028338879 1.195585
-0.76817471 -1.645888 0.94568461
-4.446393 0.02092189 0.98678821
-4.9370861 -0.020926289 1.808437
1.1441031 1.25299 1.3190579
-5.9199138 -0.02092763 1.075251
-1.707 0.14598849 1.139142
-5.9581599 0.02092026 0.96568191
0.99783963 -1.416222 0.80942112
0.1698367 0.85475391 -1.865152
-2.1357639 -0.020923 0.1730226
1.441869 0.0041772518 -2.1425149
5.7623811 -0.020927681 0.89094198
-1.707 0.04708698 -1.414409
1.246493 -1.167569 0.04142195
5.696651 -0.020927589 0.88000292
-0.55494332 0.76556152 -1.705338
-3.722384 0.020923549 1.214233
-6.0718651 -0.0209278 1.475834
-0.55861562 -1.697369 0.97902048
0.4573276 -1.034241 -1.705338
-0.60362673 1.707 1.444296
-1.096429 -1.317633 1.507879
4.1308651 -0.020925259 0.67260689
-4.2774658 0.020922 0.30297369
0.24053849 -1.707 -1.2440521
-4.800581 -0.02092576 -0.88787037
1.707 0.60907477 0.55265051
4.8512821 0.020921269 -1.106131
1.023549 -2.3857009 0.57929951
4.4146252 0.020920999 1.483508
-0.22695149 1.406231 2.0638969
4.2849522 0.020920999 0.59770352
5.0969868 -0.02092704 0.44524711
-4.4829192 -0.02092531 -1.3118629
0.97054958 -1.443513 0.78641522
1.291097 -0.52817923 -2.0865171
-1.03627 1.377793 0.718355
5.7697229 -0.02092763 1.126224
-1.589587 -0.82447487 1.268033
1.721615 -0.44375879 1.0478981
5.9154501 -0.02092815 0.048696522
1.683766 -0.72685379 -1.505083
-2.9956729 -0.020924971 -0.62685591
0.48681241 1.707 1.150588
-4.7302709 0.020923549 0.61686349
3.179595 -0.020926321 1.250463
1.6790479 0.7350145 -1.0012
4.498733 -0.02092666 0.59952402
1.707 0.28613281 0.37276709
1.317004 1.097059 -1.077224
-1.604236 -0.8098259 1.2181799
-5.4976358 -0.020927221 0.2089303
0.69892079 1.589195 -1.705338
-2.7495 -0.01411175 -1.0963579
-0.25203511 0.88688773 -1.884057
3.571137 -0.02092869 0.43618241
0.075368181 -1.48194 -1.705338
-1.707 -0.36059919 0.50969952
4.2046409 -0.01261574 1.6046309
5.8050342 0.02091942 0.4183118
4.8821239 -0.020928171 -0.46807241
0.3711457 -0.1057232 3.2491961
-4.5548782 0.020922 -0.2288958
1.73949 -0.30201349 0.64787972
-5.0033779 0.02092219 1.405689
-1.055383 1.35868 0.5880639
-1.193293 0.81001598 -2.111336
-2.9171541 -0.020924339 -0.52646071
5.5172172 -0.020927461 0.4294346
-0.58064008 1.707 -0.84812921
1.429423 -0.98463959 -0.1889782
-4.6135659 -0.020925909 -0.006490529
-1.707 0.02666432 -0.36748761
-5.5790348 0.02092197 1.182609
-1.721615 0.1247957 0.62794751
3.701087 -0.020925481 -1.204047
-4.54526 -0.020925749 0.3400929
-3.8093431 0.02092343 1.424039
1.624939 -0.079385273 1.694399
-0.113893 1.707 -0.4740231
6.174346 0.020919019 -0.025107089
2.904258 0.020923659 0.36406931
-0.69202882 1.016452 -1.705338
5.4569001 0.02091979 1.0193551
-0.66531593 -0.61745739 -1.710377
0.78706491 1.275219 1.711733
-1.721615 0.2488905 -0.81909698
1.721615 0.12204 0.76808739
0.1139902 1.707 1.273019
-3.1471939 0.020924 0.57676488
-4.0088511 -0.020925039 1.007651
4.2415919 -0.01272361 0.92944741
-4.3407331 -0.02092525 -0.02011824
-5.6348171 0.020920491 -1.229818
2.750978 -0.020924009 0.53850311
0.3011536 1.3946199 -1.705338
-1.503916 0.82345837 -1.705338
4.1306958 -0.0021600691 1.638854
-0.22029381 1.576031 2.150178
4.4141598 -0.02092644 0.5323391
-3.244581 -0.02092696 0.52246791
3.431422 -0.02092484 -1.371978
-2.810601 0.020924 -0.9811247
-5.2440481 -0.020926829 1.743601
-5.3066831 -0.02092617 -1.238655
1.721615 0.50340962 0.4240599
-5.7584929 0.0209204 1.191855
5.6358848 0.02092083 -0.61532432
1.6823961 -0.73016059 -0.033009421
2.8086989 -0.020924469 -0.76746333
-2.1225181 -0.01477068 0.040103
5.4472098 -0.02092736 1.5702569
1.403538 -1.010524 0.59540361
5.0803008 -0.02092699 1.561159
3.5629821 -0.020928441 0.56606328
4.6356201 0.020922029 -0.86193502
1.0661711 -1.347892 -1.045808
-0.88434392 0.54498672 1.758279
-3.878201 0.020923469 0.1693134
-3.619977 -0.020923819 -1.427036
-1.291538 -1.122524 -0.12614819
0.65413678 -1.722548 1.005726
-1.707 0.49352849 -0.60687059
5.808784 -0.020928079 -0.2685445
-1.295157 1.118906 0.34307161
3.111382 -0.020926891 -0.4221929
-1.721615 0.43788221 0.4876048
1.707 -0.48431629 0.58991343
-0.67307621 -1.706041 0.02009958
0.04048859 -1.707 -0.96855509
-3.779593 0.020923629 -0.1834009
5.9971662 -0.020927809 1.946992
0.3187463 1.70531 -1.7009439
-3.686532 0.020923501 -0.9620018
1.73949 0.31935781 -0.68159717
0.027819371 -1.707 0.242434
4.0102172 0.020923121 -1.3086261
3.886797 -0.02092527 1.823197
-4.7250619 -0.02092695 0.94462413
-4.5708928 -0.02092549 -1.056511
0.94764179 -0.65145069 1.745795
5.8950052 -0.02092807 0.2094679
-0.99210012 -1.421963 1.539016
-0.29719231 0.28057891 1.820899
1.40514 -1.0089231 0.050689802
0.72693729 -1.8486429 0.86662531
4.6272879 0.02092074 -1.443401
-4.4017601 -0.037208028 -1.302287
-3.184566 0.02092379 -1.1724989
-1.721615 0.61567461 1.306538
1.515494 0.89856827 1.661116
-5.9201498 0.020920301 1.3138109
4.384985 -0.020926351 -0.92794222
2.4082739 -0.020923 0.2007972
0.3448849 0.7697742 1.781419
4.8523502 0.020923801 0.2568284
-0.49024421 -1.35636 -1.705338
-1.087504 -0.92351383 -1.705338
1.707 -0.1271642 -0.81999248
-0.05104338 1.123722 -1.970322
0.1115237 1.535792 -2.2086949
1.721615 0.34514499 0.1005781
-0.1614224 1.047937 -1.705338
-1.099529 -0.67495477 -1.705338
-1.721615 -0.56616992 0.43124601
-5.2845459 -0.02092625 -0.81321448
1.626608 -0.78745377 0.31375
-0.85971987 1.554343 -1.112474
-1.703035 0.34372419 1.67518
-1.469748 0.2364282 -2.138448
3.693192 0.020923359 -0.90830499
5.4452848 -0.020927349 1.616124
-4.2980628 -0.02092514 -0.22887211
0.94979382 -1.464268 -1.698225
1.721615 -0.57465291 -0.85894328
-0.83986628 1.288078 -1.705338
-0.80630958 -1.607753 -0.1407965
1.707 0.4935976 0.227538
-1.005384 -1.408679 0.75363642
4.959425 0.020920809 1.309346
2.820796 -0.02092457 0.80352002
-5.87637 0.020920331 -1.500421
0.39806381 -1.697369 0.58521402
-5.0121489 -0.020926019 -0.60724127
-3.943193 -0.03188948 -1.246241
3.1267719 -0.020925241 -1.146974
-1.707 0.3046664 0.61550528
-0.0041762399 -0.098929211 2.184253
-2.89606 -0.02092417 -0.56617111
0.73975033 -1.0972511 1.7283
-1.721615 -0.2052093 0.6183669
-3.6378391 0.020923849 0.001720786
1.5983011 -0.81576163 -1.1283441
-4.6320281 0.02092126 0.36121711
4.6426048 0.020920999 1.3079441
-3.7804861 -0.0209265 -0.04675347
-5.4411321 -0.0209263 -0.83535618
1.721615 -0.045417011 -1.427182
-5.7304368 0.0209205 0.4442552
-0.46378779 0.6210621 1.7836111
1.538555 -0.87550801 -0.52610499
0.39453989 1.388702 -1.705338
3.171875 0.02092322 -1.13253
1.7381051 -0.3204 1.043456
5.5198112 -0.02092752 0.23342469
5.2169452 -0.0209271 1.652733
-4.4046578 0.02092208 1.420791
5.5798612 -0.020927349 1.1418999
-1.491192 -0.92287028 -0.52777553
-5.3454299 -0.020927779 1.055621
4.1280799 0.020923071 -0.52302712
5.3575978 -0.02092715 0.70648211
5.2424698 0.02092302 -0.1414569
-4.5803289 0.02092169 0.38291529
0.65241212 1.246375 -1.705338
1.405996 -1.0080661 -0.1485545
1.734015 0.3204 -1.1890399
-3.2120969 0.02092379 -1.135381
-4.9158149 -0.020927619 0.62246221
0.8973487 -0.2503632 -1.887723
-5.247642 -0.020927031 0.42845669
-2.889859 0.020924 -0.43046191
-0.337093 0.99564087 -1.705338
1.068993 -2.441102 1.048473
-0.27638781 0.155421 -1.7196029
-0.95639431 -1.457669 1.518357
0.70420408 1.693148 0.3279174
1.721615 0.37558761 1.028329
1.73949 -0.31792051 -0.32080919
0.98037148 0.52995121 -1.946907
4.5088391 -0.033619471 1.737622
5.6265178 0.02091961 0.47746611
-0.70399171 -1.693236 -1.6549031
-1.053602 -1.360461 -0.55533808
0.67263162 -0.70249969 -1.705338
-4.5709019 -0.020925701 0.56209022
-0.16034161 -0.75438929 -1.830677
1.721615 0.091462247 0.1554397
1.73949 0.31213111 -0.87576181
1.707 -0.32934031 -0.95378709
1.792137 -0.13950931 -1.695787
1.721615 -0.44612351 1.264618
0.074622378 -1.697369 1.1834559
-3.033608 0.020924 0.095564373
1.738673 -0.3204 -0.2337877
-5.7280798 0.0209205 -0.76335162
0.96270138 -1.4513609 -0.52774358
1.721615 -0.35408619 0.0001510084
-0.034712959 -0.01026915 -2.9389999
-3.1229849 -0.02092482 -0.92822993
-1.4070179 -0.2823112 -1.705338
1.309193 -0.90463412 -1.705338
-1.739491 0.29717961 -1.191607
-1.606014 -0.80804843 -0.77728969
-4.1037731 -0.034905329 -1.086507
-1.707 0.4098686 0.049786121
0.2358229 0.0085460125 1.821761
4.641685 -0.020926969 -1.192799
-1.707 0.085464969 -0.99151492
5.963583 0.02091925 1.582196
2.3644271 -0.020923 0.33295131
-0.3913455 0.24378391 -1.744559
0.67982483 1.703246 -1.6272039
-5.8127389 0.020920951 1.659626
5.8083339 -0.020928141 -0.4773061
-0.88370001 -1.101902 -2.1256919
0.330578 -1.0071419 2.3497951
0.67330492 -0.89241099 -1.705338
0.2506772 0.7643652 -1.8076431
1.221563 -1.1925 -0.29495671
-1.1533051 -1.260758 0.1010884
1.266744 -2.7836161 1.088906
-1.322592 -0.022951109 -1.705338
-1.659996 0.1649451 -1.705338
1.3348041 0.47201729 -1.705338
0.5773018 -1.707 -0.62181938
1.707 -0.32792899 -1.119539
-4.0232701 -0.020924781 1.671688
1.121646 -0.7968384 1.722308
1.404307 -1.009756 -1.471156
-0.94915009 -1.464913 0.51696658
3.218673 -0.020926669 1.130579
2.698545 -0.02176924 0.095207192
0.69515532 -1.696895 -1.093783
5.0910501 0.020923691 0.091862991
-4.3075571 0.020922 -0.5073719
0.020887259 -0.030289739 -2.272239
1.085385 -1.328678 -0.087678209
0.14989831 -0.94884688 2.332854
-1.366076 0.73265851 -2.213738
1.707 -0.28691831 -0.56143957
-1.666433 -0.74762923 -1.1824501
-3.012394 -0.020925101 -0.66635871
0.330073 1.42549 1.767997
3.603955 -0.02092737 -0.47862181
-0.61051363 1.707 -1.607404
2.8836291 0.020923831 1.02714
-5.4942622 0.02092075 -0.15949219
-1.707 0.28921071 -0.98211801
-1.707 -0.1368224 -0.73396271
0.56666118 -1.697369 1.212108
-3.7814109 -0.0209265 0.74792123
-5.837214 0.02092034 -1.423866
-1.721615 0.1011407 0.7071178
-1.334115 -1.0799479 -0.40771681
0.33147931 0.97063679 -1.705338
-5.488925 -0.020926669 0.6455887
-4.7083111 0.02092112 0.04340231
1.291507 -0.3237519 -1.705338
-1.661461 -0.75260073 -0.46771261
-5.4126329 0.02092121 1.75021
1.721615 -0.4721109 1.088632
-1.3632489 -1.050814 -1.350011
0.199653 0.2125802 2.7990079
-0.3246243 1.707 -1.072644
-1.707 -0.5830785 0.80737889
-1.721615 0.1573061 1.482702
-1.072235 1.341828 0.41750371
-4.5554719 -0.020925401 -1.23331
0.84381288 -1.2387069 -2.1463561
4.3505039 -0.0021609999 -1.29231
-1.735104 -0.292032 0.31785941
3.8616309 -0.02092547 1.744652
-2.320317 -0.020923 0.181701
-0.99873132 0.1915904 -1.904834
0.61880922 -0.81719929 -1.705338
-1.721615 -0.34515989 -0.80435818
-1.707 0.42235139 1.203254
3.3178279 -0.02092777 0.75105029
-2.8145981 -0.02092352 0.56016117
-6.1585159 0.02092004 1.1290359
4.3470898 0.020920999 0.23557819
-3.2814779 -0.020925499 -0.71939439
6.1528382 0.020919049 0.78992867
-5.5909801 0.020920649 0.52105898
-1.377172 1.036891 -1.55527
0.1389167 -1.667611 1.836074
-0.002158493 1.6911221 -1.705338
1.707 -0.22733571 0.75276101
0.046808809 0.90966088 1.768785
-3.62988 -0.020925701 1.227116
-1.707 -0.55917728 1.315738
1.707 0.094087243 -0.75843292
1.462407 0.2156277 -2.1325381
-0.78713089 -1.633944 -1.658747
-3.9285319 -0.020925559 -0.7551713
-2.8963051 -0.02092417 1.5660729
4.550168 -0.020927461 -0.6210323
1.240212 -1.150633 -1.705338
4.4353499 -0.03608251 1.682518
-2.8990879 0.020924 0.84909731
1.707 0.50865072 0.46340799
-0.67631829 1.704698 -1.675359
1.707 -0.40578571 0.84505379
4.4669371 -0.020926651 -1.236066
-5.2690721 -0.020926749 1.8459589
-0.99806023 -1.416003 0.2365641
0.48215091 1.237038 -2.076539
-0.71912032 0.48870659 -1.716246
4.6520548 0.020920999 0.3290599
3.2742331 -0.020926511 -0.7136994
1.103918 -1.3101439 -1.068216
-5.3219409 -0.020926289 -0.90451401
1.1610709 -1.252991 -0.4966526
-0.1323387 1.707 0.2375783
-5.6691418 -0.02092739 0.56563938
-3.9058349 -0.0021599999 -1.232394
-1.721615 -0.55999678 -1.450083
-1.707 -0.43104079 -0.39142421
1.707 -0.36186871 -0.47494471
-1.132748 1.0527869 -1.705338
-0.82669622 0.61308628 -1.705338
